-4.94874732,4.73467038,10.46363752
-5.42190210,5.34707412,11.09747782
-5.89505687,5.95947786,11.73293259
-6.36821165,6.57188160,12.36998153
-6.84136642,7.18428534,13.00860463
-7.31452120,7.79668908,13.64878220
-7.78767598,8.40909282,14.29049483
-8.26083075,9.02149656,14.93372343
7.03722114,-10.63480409,-6.18402600
6.56406637,-10.02240035,-5.59899606
6.09091159,-9.40999661,-5.01171099
5.61775682,-8.79759287,-4.42219908
5.14460204,-8.18518912,-3.83048843
4.67144727,-7.57278538,-3.23660689
4.19829249,-6.96038164,-2.64058203
3.72513771,-6.34797790,-2.04244119
3.25198294,-5.73557416,-1.44221143
2.77882816,-5.12317042,-0.83991954
2.30567339,-4.51076668,-0.23559201
1.83251861,-3.89836294,0.37074495
1.35936384,-3.28595920,0.97906544
0.88620906,-2.67355546,1.58934384
0.41305429,-2.06115172,2.20155486
-0.06010049,-1.44874797,2.81567350
-0.53325526,-0.83634423,3.43167511
-1.00641004,-0.22394049,4.04953531
-1.47956482,0.38846325,4.66923008
-1.95271959,1.00086699,5.29073570
-2.42587437,1.61327073,5.91402877
-2.89902914,2.22567447,6.53908623
-3.37218392,2.83807821,7.16588533
-3.84533869,3.45048195,7.79440365
-4.31849347,4.06288569,8.42461909
-4.79164824,4.67528943,9.05650988
-5.26480302,5.28769317,9.69005456
-5.73795779,5.90009692,10.32523200
-6.21111257,6.51250066,10.96202139
-6.68426735,7.12490440,11.60040224
-7.15742212,7.73730814,12.24035435
-7.63057690,8.34971188,12.88185787
-8.10373167,8.96211562,13.52489323
6.72116545,-10.08178129,-6.99165578
6.24801067,-9.46937755,-6.40530515
5.77485589,-8.85697381,-5.81669365
5.30170112,-8.24457007,-5.22585007
4.82854634,-7.63216633,-4.63280295
4.35539157,-7.01976259,-4.03758058
3.88223679,-6.40735884,-3.44021099
3.40908202,-5.79495510,-2.84072193
2.93592724,-5.18255136,-2.23914088
2.46277247,-4.57014762,-1.63549501
1.98961769,-3.95774388,-1.02981121
1.51646292,-3.34534014,-0.42211606
1.04330814,-2.73293640,0.18756416
0.57015336,-2.12053266,0.79920351
0.09699859,-1.50812892,1.41277633
-0.37615619,-0.89572518,2.02825732
-0.84931096,-0.28332144,2.64562149
-1.32246574,0.32908230,3.26484417
-1.79562051,0.94148605,3.88590104
-2.26877529,1.55388979,4.50876809
-2.74193006,2.16629353,5.13342167
-3.21508484,2.77869727,5.75983845
-3.68823961,3.39110101,6.38799542
-4.16139439,4.00350475,7.01786993
-4.63454917,4.61590849,7.64943965
-5.10770394,5.22831223,8.28268257
-5.58085872,5.84071597,8.91757705
-6.05401349,6.45311971,9.55410174
-6.52716827,7.06552345,10.19223563
-7.00032304,7.67792720,10.83195805
-7.47347782,8.29033094,11.47324865
-7.94663259,8.90273468,12.11608737
-8.41978737,9.51513842,12.76045452
6.87826452,-10.14116223,-8.38388828
6.40510975,-9.52875849,-7.79849782
5.93195497,-8.91635475,-7.21081138
5.45880020,-8.30395101,-6.62085847
4.98564542,-7.69154727,-6.02866836
4.51249065,-7.07914353,-5.43427005
4.03933587,-6.46673979,-4.83769229
3.56618110,-5.85433605,-4.23896355
3.09302632,-5.24193231,-3.63811202
2.61987155,-4.62952856,-3.03516558
2.14671677,-4.01712482,-2.43015183
1.67356199,-3.40472108,-1.82309804
1.20040722,-2.79231734,-1.21403117
0.72725244,-2.17991360,-0.60297786
0.25409767,-1.56750986,0.01003558
-0.21905711,-0.95510612,0.62498315
-0.69221188,-0.34270238,1.24183923
-1.16536666,0.26970136,1.86057849
-1.63852143,0.88210510,2.48117598
-2.11167621,1.49450884,3.10360706
-2.58483098,2.10691258,3.72784745
-3.05798576,2.71931633,4.35387322
-3.53114054,3.33172007,4.98166078
-4.00429531,3.94412381,5.61118687
-4.47745009,4.55652755,6.24242859
-4.95060486,5.16893129,6.87536339
-5.42375964,5.78133503,7.50996905
-5.89691441,6.39373877,8.14622369
-6.37006919,7.00614251,8.78410577
-6.84322396,7.61854625,9.42359410
-7.31637874,8.23094999,10.06466782
-7.78953351,8.84335373,10.70730639
-8.26268829,9.45575747,11.35148961
6.56220883,-9.58813943,-9.19127288
6.08905405,-8.97573569,-8.60453721
5.61589928,-8.36333195,-8.01549957
5.14274450,-7.75092821,-7.42419000
4.66958973,-7.13852447,-6.83063823
4.19643495,-6.52612073,-6.23487375
3.72328018,-5.91371699,-5.63692579
3.25012540,-5.30131325,-5.03682325
2.77697062,-4.68890951,-4.43459477
2.30381585,-4.07650577,-3.83026865
1.83066107,-3.46410203,-3.22387290
1.35750630,-2.85169829,-2.61543520
0.88435152,-2.23929454,-2.00498288
0.41119675,-1.62689080,-1.39254297
-0.06195803,-1.01448706,-0.77814213
-0.53511280,-0.40208332,-0.16180669
-1.00826758,0.21032042,0.45643736
-1.48142235,0.82272416,1.07656439
-1.95457713,1.43512790,1.69854913
-2.42773191,2.04753164,2.32236666
-2.90088668,2.65993538,2.94799240
-3.37404146,3.27233912,3.57540215
-3.84719623,3.88474286,4.20457204
-4.32035101,4.49714661,4.83547858
-4.79350578,5.10955035,5.46809863
-5.26666056,5.72195409,6.10240939
-5.73981533,6.33435783,6.73838842
-6.21297011,6.94676157,7.37601365
-6.68612488,7.55916531,8.01526333
-7.15927966,8.17156905,8.65611607
-7.63243444,8.78397279,9.29855083
-8.10558921,9.39637653,9.94254691
-8.57874399,10.00878027,10.58808393
6.71930791,-9.64752038,-10.58361336
6.24615313,-9.03511664,-9.99785524
5.77299836,-8.42271290,-9.40975854
5.29984358,-7.81030915,-8.81935404
4.82668880,-7.19790541,-8.22667225
4.35353403,-6.58550167,-7.63174344
3.88037925,-5.97309793,-7.03459758
3.40722448,-5.36069419,-6.43526434
2.93406970,-4.74829045,-5.83377312
2.46091493,-4.13588671,-5.23015298
1.98776015,-3.52348297,-4.62443267
1.51460538,-2.91107923,-4.01664060
1.04145060,-2.29867549,-3.40680487
0.56829583,-1.68627175,-2.79495320
0.09514105,-1.07386801,-2.18111298
-0.37801373,-0.46146426,-1.56531126
-0.85116850,0.15093948,-0.94757471
-1.32432328,0.76334322,-0.32792964
-1.79747805,1.37574696,0.29359797
-2.27063283,1.98815070,0.91698255
-2.74378760,2.60055444,1.54219888
-3.21694238,3.21295818,2.16922208
-3.69009715,3.82536192,2.79802769
-4.16325193,4.43776566,3.42859157
-4.63640670,5.05016940,4.06088998
-5.10956148,5.66257314,4.69489952
-5.58271626,6.27497689,5.33059719
-6.05587103,6.88738063,5.96796031
-6.52902581,7.49978437,6.60696660
-7.00218058,8.11218811,7.24759412
-7.47533536,8.72459185,7.88982128
-7.94849013,9.33699559,8.53362687
-8.42164491,9.94939933,9.17899000
-8.89479968,10.56180307,9.82589014
6.40325221,-9.09449758,-11.39074874
5.93009743,-8.48209384,-10.80361974
5.45694266,-7.86969010,-10.21414591
4.98378788,-7.25728636,-9.62235857
4.51063311,-6.64488262,-9.02828875
4.03747833,-6.03247887,-8.43196724
3.56432356,-5.42007513,-7.83342448
3.09116878,-4.80767139,-7.23269067
2.61801401,-4.19526765,-6.62979563
2.14485923,-3.58286391,-6.02476890
1.67170446,-2.97046017,-5.41763966
1.19854968,-2.35805643,-4.80843676
0.72539490,-1.74565269,-4.19718868
0.25224013,-1.13324895,-3.58392356
-0.22091465,-0.52084521,-2.96866917
-0.69406942,0.09155853,-2.35145292
-1.16722420,0.70396227,-1.73230184
-1.64037897,1.31636602,-1.11124258
-2.11353375,1.92876976,-0.48830144
-2.58668852,2.54117350,0.13649568
-3.05984330,3.15357724,0.76312327
-3.53299807,3.76598098,1.39155616
-4.00615285,4.37838472,2.02176961
-4.47930763,4.99078846,2.65373922
-4.95246240,5.60319220,3.28744099
-5.42561718,6.21559594,3.92285129
-5.89877195,6.82799968,4.55994686
-6.37192673,7.44040342,5.19870484
-6.84508150,8.05280716,5.83910272
-7.31823628,8.66521091,6.48111835
-7.79139105,9.27761465,7.12472998
-8.26454583,9.89001839,7.76991619
-8.73770060,10.50242213,8.41665594
6.08719651,-8.54147478,-12.19706665
5.61404174,-7.92907104,-11.60855022
5.14088696,-7.31666730,-11.01768285
4.66773219,-6.70426356,-10.42449640
4.19457741,-6.09185982,-9.82902245
3.72142264,-5.47945608,-9.23129229
3.24826786,-4.86705234,-8.63133690
2.77511309,-4.25464860,-8.02918693
2.30195831,-3.64224485,-7.42487272
1.82880353,-3.02984111,-6.81842423
1.35564876,-2.41743737,-6.20987112
0.88249398,-1.80503363,-5.59924264
0.40933921,-1.19262989,-4.98656771
-0.06381557,-0.58022615,-4.37187486
-0.53697034,0.03217759,-3.75519225
-1.01012512,0.64458133,-3.13654766
-1.48327989,1.25698507,-2.51596848
-1.95643467,1.86938881,-1.89348171
-2.42958944,2.48179255,-1.26911397
-2.90274422,3.09419630,-0.64289147
-3.37589900,3.70660004,-0.01484004
-3.84905377,4.31900378,0.61501487
-4.32220855,4.93140752,1.24664823
-4.79536332,5.54381126,1.88003539
-5.26851810,6.15621500,2.51515209
-5.74167287,6.76861874,3.15197445
-6.21482765,7.38102248,3.79047901
-6.68798242,7.99342622,4.43064265
-7.16113720,8.60582996,5.07244268
-7.63429197,9.21823370,5.71585675
-8.10744675,9.83063744,6.36086290
-8.58060153,10.44304119,7.00743956
5.77114082,-7.98845198,-13.00255072
5.29798604,-7.37604824,-12.41262998
4.82483127,-6.76364450,-11.82035234
4.35167649,-6.15124076,-11.22575021
3.87852171,-5.53883702,-10.62885573
3.40536694,-4.92643328,-10.02970072
2.93221216,-4.31402954,-9.42831666
2.45905739,-3.70162580,-8.82473472
1.98590261,-3.08922206,-8.21898571
1.51274784,-2.47681832,-7.61110008
1.03959306,-1.86441457,-7.00110792
0.56643829,-1.25201083,-6.38903892
0.09328351,-0.63960709,-5.77492244
-0.37987126,-0.02720335,-5.15878739
-0.85302604,0.58520039,-4.54066235
-1.32618082,1.19760413,-3.92057545
-1.79933559,1.81000787,-3.29855445
-2.27249037,2.42241161,-2.67462670
-2.74564514,3.03481535,-2.04881914
-3.21879992,3.64721909,-1.42115832
-3.69195469,4.25962283,-0.79167037
-4.16510947,4.87202657,-0.16038102
-4.63826424,5.48443032,0.47268442
-5.11141902,6.09683406,1.10750103
-5.58457379,6.70923780,1.74404430
-6.05772857,7.32164154,2.38229011
-6.53088335,7.93404528,3.02221476
-7.00403812,8.54644902,3.66379493
-7.47719290,9.15885276,4.30700770
-7.95034767,9.77125650,4.95183054
-8.42350245,10.38366024,5.59824132
-8.89665722,10.99606398,6.24621825
5.45508512,-7.43542919,-13.80718400
4.98193034,-6.82302544,-13.21584174
4.50877557,-6.21062170,-12.62213677
4.03562079,-5.59821796,-12.02610209
3.56246602,-4.98581422,-11.42777039
3.08931124,-4.37341048,-10.82717402
2.61615647,-3.76100674,-10.22434501
2.14300169,-3.14860300,-9.61931502
1.66984692,-2.53619926,-9.01211536
1.19669214,-1.92379552,-8.40277695
0.72353737,-1.31139178,-7.79133034
0.25038259,-0.69898804,-7.17780568
-0.22277219,-0.08658429,-6.56223274
-0.69592696,0.52581945,-5.94464085
-1.16908174,1.13822319,-5.32505897
-1.64223651,1.75062693,-4.70351563
-2.11539129,2.36303067,-4.08003895
-2.58854606,2.97543441,-3.45465662
-3.06170084,3.58783815,-2.82739592
-3.53485561,4.20024189,-2.19828372
-4.00801039,4.81264563,-1.56734645
-4.48116516,5.42504937,-0.93461013
-4.95431994,6.03745311,-0.30010036
-5.42747472,6.64985685,0.33615767
-5.90062949,7.26226060,0.97413921
-6.37378427,7.87466434,1.61381991
-6.84693904,8.48706808,2.25517581
-7.32009382,9.09947182,2.89818340
-7.79324859,9.71187556,3.54281955
-8.26640337,10.32427930,4.18906154
-8.73955814,10.93668304,4.83688702
5.13902942,-6.88240639,-14.61094892
4.66587465,-6.27000265,-14.01816760
4.19271987,-5.65759891,-13.42301793
3.71956510,-5.04519516,-12.82553351
3.24641032,-4.43279142,-12.22574759
2.77325555,-3.82038768,-11.62369308
2.30010077,-3.20798394,-11.01940255
1.82694600,-2.59558020,-10.41290817
1.35379122,-1.98317646,-9.80424175
0.88063644,-1.37077272,-9.19343471
0.40748167,-0.75836898,-8.58051804
-0.06567311,-0.14596524,-7.96552236
-0.53882788,0.46643850,-7.34847786
-1.01198266,1.07884224,-6.72941430
-1.48513743,1.69124598,-6.10836103
-1.95829221,2.30364973,-5.48534696
-2.43144698,2.91605347,-4.86040057
-2.90460176,3.52845721,-4.23354993
-3.37775653,4.14086095,-3.60482263
-3.85091131,4.75326469,-2.97424587
-4.32406609,5.36566843,-2.34184639
-4.79722086,5.97807217,-1.70765050
-5.27037564,6.59047591,-1.07168408
-5.74353041,7.20287965,-0.43397257
-6.21668519,7.81528339,0.20545901
-6.68983996,8.42768713,0.84658607
-7.16299474,9.04009088,1.48938444
-7.63614951,9.65249462,2.13383038
-8.10930429,10.26489836,2.77990056
-8.58245906,10.87730210,3.42757206
-9.05561384,11.48970584,4.07682237
4.34981895,-5.71697985,-14.81958903
3.87666418,-5.10457611,-14.22297696
3.40350940,-4.49217237,-13.62402529
2.93035462,-3.87976863,-13.02276786
2.45719985,-3.26736488,-12.41923814
1.98404507,-2.65496114,-11.81346925
1.51089030,-2.04255740,-11.20549388
1.03773552,-1.43015366,-10.59534435
0.56458075,-0.81774992,-9.98305257
0.09142597,-0.20534618,-9.36865001
-0.38172880,0.40705756,-8.75216775
-0.85488358,1.01946130,-8.13363640
-1.32803835,1.63186504,-7.51308615
-1.80119313,2.24426878,-6.89054676
-2.27434791,2.85667252,-6.26604751
-2.74750268,3.46907626,-5.63961727
-3.22065746,4.08148001,-5.01128444
-3.69381223,4.69388375,-4.38107697
-4.16696701,5.30628749,-3.74902237
-4.64012178,5.91869123,-3.11514769
-5.11327656,6.53109497,-2.47947953
-5.58643133,7.14349871,-1.84204405
-6.05958611,7.75590245,-1.20286696
-6.53274088,8.36830619,-0.56197352
-7.00589566,8.98070993,0.08061143
-7.47905043,9.59311367,0.72486350
-7.95220521,10.20551741,1.37075874
-8.42535999,10.81792116,2.01827362
-8.89851476,11.43032490,2.66738503
4.03376325,-5.16395705,-15.62008685
3.56060848,-4.55155331,-15.02199434
3.08745370,-3.93914957,-14.42155760
2.61429893,-3.32674583,-13.81881105
2.14114415,-2.71434209,-13.21378876
1.66798938,-2.10193835,-12.60652438
1.19483460,-1.48953460,-11.99705115
0.72167983,-0.87713086,-11.38540192
0.24852505,-0.26472712,-10.77160907
-0.22462972,0.34767662,-10.15570457
-0.69778450,0.96008036,-9.53771995
-1.17093928,1.57248410,-8.91768627
-1.64409405,2.18488784,-8.29563415
-2.11724883,2.79729158,-7.67159373
-2.59040360,3.40969532,-7.04559471
-3.06355838,4.02209906,-6.41766632
-3.53671315,4.63450280,-5.78783731
-4.00986793,5.24690654,-5.15613599
-4.48302270,5.85931029,-4.52259016
-4.95617748,6.47171403,-3.88722720
-5.42933225,7.08411777,-3.25007400
-5.90248703,7.69652151,-2.61115699
-6.37564181,8.30892525,-1.97050215
-6.84879658,8.92132899,-1.32813499
-7.32195136,9.53373273,-0.68408058
-7.79510613,10.14613647,-0.03836353
-8.26826091,10.75854021,0.60899198
-8.74141568,11.37094395,1.25796224
-9.21457046,11.98334769,1.90852394
3.24455278,-3.99853051,-15.82004986
2.77139801,-3.38612677,-15.21810989
2.29824323,-2.77372303,-14.61385632
1.82508846,-2.16131929,-14.00732379
1.35193368,-1.54891555,-13.39854652
0.87877891,-0.93651181,-12.78755831
0.40562413,-0.32410807,-12.17439251
-0.06753065,0.28829567,-11.55908204
-0.54068542,0.90069942,-10.94165933
-1.01384020,1.51310316,-10.32215637
-1.48699497,2.12550690,-9.70060469
-1.96014975,2.73791064,-9.07703532
-2.43330452,3.35031438,-8.45147882
-2.90645930,3.96271812,-7.82396529
-3.37961407,4.57512186,-7.19452432
-3.85276885,5.18752560,-6.56318502
-4.32592362,5.79992934,-5.92997603
-4.79907840,6.41233308,-5.29492550
-5.27223318,7.02473682,-4.65806110
-5.74538795,7.63714057,-4.01941001
-6.21854273,8.24954431,-3.37899894
-6.69169750,8.86194805,-2.73685413
-7.16485228,9.47435179,-2.09300134
-7.63800705,10.08675553,-1.44746588
-8.11116183,10.69915927,-0.80027258
-8.58431660,11.31156301,-0.15144580
-9.05747138,11.92396675,0.49899051
2.45534231,-2.83310397,-16.01366089
1.98218753,-2.22070023,-15.40788207
1.50903276,-1.60829649,-14.79982134
1.03587798,-0.99589275,-14.18951351
0.56272321,-0.38348901,-13.57699293
0.08956843,0.22891473,-12.96229347
-0.38358634,0.84131847,-12.34544856
-0.85674112,1.45372221,-11.72649114
-1.32989589,2.06612595,-11.10545368
-1.80305067,2.67852970,-10.48236813
-2.27620544,3.29093344,-9.85726598
-2.74936022,3.90333718,-9.23017819
-3.22251500,4.51574092,-8.60113526
-3.69566977,5.12814466,-7.97016714
-4.16882455,5.74054840,-7.33730332
-4.64197932,6.35295214,-6.70257277
-5.11513410,6.96535588,-6.06600397
-5.58828887,7.57775962,-5.42762488
-6.06144365,8.19016336,-4.78746298
-6.53459842,8.80256710,-4.14554527
-7.00775320,9.41497084,-3.50189823
-7.48090797,10.02737459,-2.85654788
-7.95406275,10.63977833,-2.20951975
-8.42721752,11.25218207,-1.56083888
-8.90037230,11.86458581,-0.91052987
1.19297706,-1.05527369,-15.59125878
0.71982229,-0.44286995,-14.97940243
0.24666751,0.16953379,-14.36533180
-0.22648726,0.78193753,-13.74908133
-0.69964204,1.39434127,-13.13068497
-1.17279681,2.00674501,-12.51017614
-1.64595159,2.61914875,-11.88758779
-2.11910637,3.23155249,-11.26295233
-2.59226114,3.84395623,-10.63630169
-3.06541592,4.45635998,-10.00766724
-3.53857069,5.06876372,-9.37707988
-4.01172547,5.68116746,-8.74456993
-4.48488024,6.29357120,-8.11016725
-4.95803502,6.90597494,-7.47390115
-5.43118979,7.51837868,-6.83580041
-5.90434457,8.13078242,-6.19589332
-6.37749934,8.74318616,-5.55420765
-6.85065412,9.35558990,-4.91077066
-7.32380890,9.96799364,-4.26560910
-7.79696367,10.58039738,-3.61874922
-8.27011845,11.19280112,-2.97021679
-8.74327322,11.80520487,-2.32003706
-0.06938818,0.72255659,-15.15255094
-0.54254296,1.33496033,-14.53473187
-1.01569774,1.94736407,-13.91476679
-1.48885251,2.55976781,-13.29268963
-1.96200729,3.17217155,-12.66853382
-2.43516206,3.78457529,-12.04233223
-2.90831684,4.39697903,-11.41411723
-3.38147161,5.00938277,-10.78392061
-3.85462639,5.62178651,-10.15177365
-4.32778116,6.23419025,-9.51770708
-4.80093594,6.84659400,-8.88175109
-5.27409071,7.45899774,-8.24393534
-5.74724549,8.07140148,-7.60428894
-6.22040027,8.68380522,-6.96284048
-6.69355504,9.29620896,-6.31961802
-7.16670982,9.90861270,-5.67464908
-7.63986459,10.52101644,-5.02796067
-8.11301937,11.13342018,-4.37957929
-8.58617414,11.74582392,-3.72953092
-1.33175343,2.50038687,-14.69766873
-1.80490821,3.11279061,-14.07400611
-2.27806298,3.72519435,-13.44826607
-2.75121776,4.33759809,-12.82048196
-3.22437253,4.95000183,-12.19068656
-3.69752731,5.56240557,-11.55891211
-4.17068209,6.17480931,-10.92519027
-4.64383686,6.78721305,-10.28955216
-5.11699164,7.39961679,-9.65202833
-5.59014641,8.01202053,-9.01264877
-6.06330119,8.62442428,-8.37144291
-6.53645596,9.23682802,-7.72843965
-7.00961074,9.84923176,-7.08366733
-7.48276551,10.46163550,-6.43715374
-7.95592029,11.07403924,-5.78892615
-8.42907506,11.68644298,-5.13901129
-2.59411868,4.27821715,-14.22675801
-3.06727346,4.89062089,-13.59737480
-3.54042823,5.50302463,-12.96598283
-4.01358301,6.11542837,-12.33261475
-4.48673778,6.72783211,-11.69730264
-4.95989256,7.34023585,-11.06007797
-5.43304733,7.95263959,-10.42097166
-5.90620211,8.56504333,-9.78001405
-6.37935688,9.17744707,-9.13723488
-6.85251166,9.78985081,-8.49266335
-7.32566643,10.40225456,-7.84632807
-7.79882121,11.01465830,-7.19825712
-8.27197599,11.62706204,-6.54847800
-4.32963870,6.66845117,-13.10500067
-4.80279348,7.28085491,-12.46808276
-5.27594825,7.89325865,-11.82925643
-5.74910303,8.50566239,-11.18855295
-6.22225780,9.11806613,-10.54600297
-6.69541258,9.73046987,-9.90163659
-7.16856736,10.34287361,-9.25548328
-7.64172213,10.95527735,-8.60757194
3.77126411,-7.65746409,22.88198144
3.29810933,-7.04506035,23.48808340
2.82495455,-6.43265661,24.09586201
2.35179978,-5.82025287,24.70529979
1.87864500,-5.20784913,25.31637942
1.40549023,-4.59544539,25.92908377
0.93233545,-3.98304164,26.54339590
4.87467274,-8.94165251,20.27582678
4.40151796,-8.32924877,20.87795429
3.92836318,-7.71684503,21.48181343
3.45520841,-7.10444129,22.08738594
2.98205363,-6.49203755,22.69465376
2.50889886,-5.87963381,23.30359903
2.03574408,-5.26723007,23.91420404
1.56258931,-4.65482633,24.52645131
1.08943453,-4.04242259,25.14032353
0.61627976,-3.43001885,25.75580360
0.14312498,-2.81761511,26.37287459
-0.33002979,-2.20521137,26.99151977
-0.80318457,-1.59280762,27.61172261
5.97808136,-10.22584094,17.67921247
5.50492659,-9.61343720,18.27720040
5.03177181,-9.00103346,18.87697773
4.55861704,-8.38862972,19.47852544
4.08546226,-7.77622598,20.08182470
3.61230749,-7.16382223,20.68685685
3.13915271,-6.55141849,21.29360345
2.66599794,-5.93901475,21.90204622
2.19284316,-5.32661101,22.51216710
1.71968839,-4.71420727,23.12394821
1.24653361,-4.10180353,23.73737187
0.77337883,-3.48939979,24.35242059
0.30022406,-2.87699605,24.96907710
-0.17293072,-2.26459231,25.58732430
-0.64608549,-1.65218857,26.20714531
-1.11924027,-1.03978483,26.82852342
-1.59239504,-0.42738109,27.45144215
6.13518044,-10.28522188,16.28181954
5.66202567,-9.67281814,16.87917324
5.18887089,-9.06041440,17.47833761
4.71571612,-8.44801066,18.07929321
4.24256134,-7.83560692,18.68202079
3.76940657,-7.22320318,19.28650130
3.29625179,-6.61079944,19.89271587
2.82309702,-5.99839570,20.50064584
2.34994224,-5.38599195,21.11027274
1.87678746,-4.77358821,21.72157830
1.40363269,-4.16118447,22.33454445
0.93047791,-3.54878073,22.94915332
0.45732314,-2.93637699,23.56538726
-0.01583164,-2.32397325,24.18322880
-0.48898641,-1.71156951,24.80266068
-0.96214119,-1.09916577,25.42366585
-1.43529596,-0.48676203,26.04622746
-1.90845074,0.12564171,26.67032886
-2.38160551,0.73804545,27.29595361
-2.85476029,1.35044919,27.92308545
6.76543430,-10.95700657,14.28981627
6.29227952,-10.34460282,14.88466931
5.81912475,-9.73219908,15.48137493
5.34596997,-9.11979534,16.07991304
4.87281520,-8.50739160,16.68026379
4.39966042,-7.89498786,17.28240750
3.92650565,-7.28258412,17.88632468
3.45335087,-6.67018038,18.49199607
2.98019609,-6.05777664,19.09940256
2.50704132,-5.44537290,19.70852529
2.03388654,-4.83296916,20.31934559
1.56073177,-4.22056542,20.93184498
1.08757699,-3.60816168,21.54600520
0.61442222,-2.99575793,22.16180821
0.14126744,-2.38335419,22.77923614
-0.33188733,-1.77095045,23.39827138
-0.80504211,-1.15854671,24.01889648
-1.27819688,-0.54614297,24.64109423
-1.75135166,0.06626077,25.26484761
-2.22450644,0.67866451,25.89013984
-2.69766121,1.29106825,26.51695430
-3.17081599,1.90347199,27.14527463
-3.64397076,2.51587573,27.77508463
6.92253338,-11.01638751,12.89360192
6.44937860,-10.40398377,13.48776967
5.97622383,-9.79158003,14.08381286
5.50306905,-9.17917629,14.68171096
5.02991427,-8.56677254,15.28144367
4.55675950,-7.95436880,15.88299088
4.08360472,-7.34196506,16.48633265
3.61044995,-6.72956132,17.09144928
3.13729517,-6.11715758,17.69832126
2.66414040,-5.50475384,18.30692929
2.19098562,-4.89235010,18.91725427
1.71783085,-4.27994636,19.52927734
1.24467607,-3.66754262,20.14297980
0.77152130,-3.05513888,20.75834322
0.29836652,-2.44273514,21.37534934
-0.17478826,-1.83033140,21.99398014
-0.64794303,-1.21792765,22.61421780
-1.12109781,-0.60552391,23.23604473
-1.59425258,0.00687983,23.85944353
-2.06740736,0.61928357,24.48439704
-2.54056213,1.23168731,25.11088830
-3.01371691,1.84409105,25.73890057
-3.48687168,2.45649479,26.36841732
-3.96002646,3.06889853,26.99942222
7.07963246,-11.07576845,11.49766188
6.60647768,-10.46336471,12.09112887
6.13332290,-9.85096097,12.68649477
5.66016813,-9.23855723,13.28373861
5.18701335,-8.62615349,13.88283963
4.71385858,-8.01374975,14.48377724
4.24070380,-7.40134601,15.08653108
3.76754903,-6.78894227,15.69108099
3.29439425,-6.17653852,16.29740703
2.82123948,-5.56413478,16.90548945
2.34808470,-4.95173104,17.51530872
1.87492993,-4.33932730,18.12684555
1.40177515,-3.72692356,18.74008084
0.92862037,-3.11451982,19.35499572
0.45546560,-2.50211608,19.97157154
-0.01768918,-1.88971234,20.58978985
-0.49084395,-1.27730860,21.20963246
-0.96399873,-0.66490486,21.83108135
-1.43715350,-0.05250112,22.45411878
-1.91030828,0.55990263,23.07872717
-2.38346305,1.17230637,23.70488921
-2.85661783,1.78471011,24.33258778
-3.32977260,2.39711385,24.96180598
-3.80292738,3.00951759,25.59252714
-4.27608216,3.62192133,26.22473482
-4.74923693,4.23432507,26.85841275
7.70988631,-11.74755313,9.51119982
7.23673153,-11.13514939,10.10200533
6.76357676,-10.52274565,10.69475552
6.29042198,-9.91034191,11.28942875
5.81726721,-9.29793817,11.88600356
5.34411243,-8.68553443,12.48445872
4.87095766,-8.07313069,13.08477319
4.39780288,-7.46072695,13.68692614
3.92464811,-6.84832321,14.29089694
3.45149333,-6.23591947,14.89666519
2.97833856,-5.62351573,15.50421070
2.50518378,-5.01111199,16.11351350
2.03202900,-4.39870824,16.72455385
1.55887423,-3.78630450,17.33731221
1.08571945,-3.17390076,17.95176929
0.61256468,-2.56149702,18.56790601
0.13940990,-1.94909328,19.18570351
-0.33374487,-1.33668954,19.80514317
-0.80689965,-0.72428580,20.42620660
-1.28005442,-0.11188206,21.04887562
-1.75320920,0.50052168,21.67313228
-2.22636397,1.11292542,22.29895887
-2.69951875,1.72532916,22.92633789
-3.17267353,2.33773290,23.55525208
-3.64582830,2.95013665,24.18568440
-4.11898308,3.56254039,24.81761803
-4.59213785,4.17494413,25.45103636
-5.06529263,4.78734787,26.08592304
7.86698539,-11.80693408,8.11659509
7.39383061,-11.19453034,8.70664189
6.92067584,-10.58212660,9.29865866
6.44752106,-9.96972286,9.89262325
5.97436629,-9.35731911,10.48851373
5.50121151,-8.74491537,11.08630837
5.02805674,-8.13251163,11.68598566
4.55490196,-7.52010789,12.28752426
4.08174718,-6.90770415,12.89090311
3.60859241,-6.29530041,13.49610131
3.13543763,-5.68289667,14.10309821
2.66228286,-5.07049293,14.71187339
2.18912808,-4.45808919,15.32240664
1.71597331,-3.84568545,15.93467798
1.24281853,-3.23328171,16.54866767
0.76966376,-2.62087796,17.16435619
0.29650898,-2.00847422,17.78172425
-0.17664579,-1.39607048,18.40075282
-0.64980057,-0.78366674,19.02142307
-1.12295535,-0.17126300,19.64371640
-1.59611012,0.44114074,20.26761449
-2.06926490,1.05354448,20.89309919
-2.54241967,1.66594822,21.52015264
-3.01557445,2.27835196,22.14875717
-3.48872922,2.89075570,22.77889536
-3.96188400,3.50315944,23.41055002
-4.43503877,4.11556318,24.04370419
-4.90819355,4.72796693,24.67834113
-5.38134832,5.34037067,25.31444434
8.02408447,-11.86631502,6.72231146
7.55092969,-11.25391128,7.31158162
7.07777492,-10.64150754,7.90284772
6.60462014,-10.02910380,8.49608713
6.13146537,-9.41670006,9.09127741
5.65831059,-8.80429632,9.68839632
5.18515581,-8.19189258,10.28742186
4.71200104,-7.57948883,10.88833220
4.23884626,-6.96708509,11.49110577
3.76569149,-6.35468135,12.09572121
3.29253671,-5.74227761,12.70215738
2.81938194,-5.12987387,13.31039338
2.34622716,-4.51747013,13.92040853
1.87307239,-3.90506639,14.53218238
1.39991761,-3.29266265,15.14569475
0.92676284,-2.68025891,15.76092565
0.45360806,-2.06785517,16.37785536
-0.01954672,-1.45545143,16.99646438
-0.49270149,-0.84304768,17.61673347
-0.96585627,-0.23064394,18.23864361
-1.43901104,0.38175980,18.86217603
-1.91216582,0.99416354,19.48731220
-2.38532059,1.60656728,20.11403382
-2.85847537,2.21897102,20.74232284
-3.33163014,2.83137476,21.37216145
-3.80478492,3.44377850,22.00353206
-4.27793969,4.05618224,22.63641734
-4.75109447,4.66858598,23.27080018
-5.22424925,5.28098972,23.90666370
-5.69740402,5.89339346,24.54399127
8.18118355,-11.92569596,5.32836015
7.70802877,-11.31329222,5.91683504
7.23487399,-10.70088848,6.50733259
6.76171922,-10.08848474,7.09982966
6.28856444,-9.47608100,7.69430327
5.81540967,-8.86367726,8.29073068
5.34225489,-8.25127352,8.88908937
4.86910012,-7.63886978,9.48935700
4.39594534,-7.02646604,10.09151150
3.92279057,-6.41406230,10.69553100
3.44963579,-5.80165855,11.30139386
2.97648102,-5.18925481,11.90907870
2.50332624,-4.57685107,12.51856434
2.03017147,-3.96444733,13.12982988
1.55701669,-3.35204359,13.74285462
1.08386191,-2.73963985,14.35761814
0.61070714,-2.12723611,14.97410025
0.13755236,-1.51483237,15.59228098
-0.33560241,-0.90242863,16.21214065
-0.80875719,-0.29002489,16.83365981
-1.28191196,0.32237885,17.45681923
-1.75506674,0.93478259,18.08159997
-2.22822151,1.54718634,18.70798331
-2.70137629,2.15959008,19.33595078
-3.17453106,2.77199382,19.96548416
-3.64768584,3.38439756,20.59656547
-4.12084062,3.99680130,21.22917697
-4.59399539,4.60920504,21.86330119
-5.06715017,5.22160878,22.49892086
-5.54030494,5.83401252,23.13601898
-6.01345972,6.44641626,23.77457877
8.33828262,-11.98507691,3.93475290
7.86512785,-11.37267317,4.52241319
7.39197307,-10.76026942,5.11212364
6.91881830,-10.14786568,5.70386054
6.44566352,-9.53546194,6.29760041
5.97250875,-8.92305820,6.89331996
5.49935397,-8.31065446,7.49099612
5.02619920,-7.69825072,8.09060606
4.55304442,-7.08584698,8.69212716
4.07988965,-6.47344324,9.29553704
3.60673487,-5.86103950,9.90081356
3.13358009,-5.24863576,10.50793482
2.66042532,-4.63623202,11.11687914
2.18727054,-4.02382827,11.72762511
1.71411577,-3.41142453,12.34015157
1.24096099,-2.79902079,12.95443759
0.76780622,-2.18661705,13.57046251
0.29465144,-1.57421331,14.18820590
-0.17850333,-0.96180957,14.80764759
-0.65165811,-0.34940583,15.42876769
-1.12481288,0.26299791,16.05154653
-1.59796766,0.87540165,16.67596471
-2.07112244,1.48780539,17.30200307
-2.54427721,2.10020913,17.92964273
-3.01743199,2.71261287,18.55886504
-3.49058676,3.32501662,19.18965161
-3.96374154,3.93742036,19.82198430
-4.43689631,4.54982410,20.45584522
-4.91005109,5.16222784,21.09121673
-5.38320586,5.77463158,21.72808144
-5.85636064,6.38703532,22.36642219
8.02222693,-11.43205411,3.12832765
7.54907215,-10.81965037,3.71723172
7.07591738,-10.20724663,4.30818997
6.60276260,-9.59484289,4.90117836
6.12960783,-8.98243914,5.49617305
5.65645305,-8.37003540,6.09315043
5.18329828,-7.75763166,6.69208711
4.71014350,-7.14522792,7.29295995
4.23698872,-6.53282418,7.89574604
3.76383395,-5.92042044,8.50042268
3.29067917,-5.30801670,9.10696747
2.81752440,-4.69561296,9.71535820
2.34436962,-4.08320922,10.32557296
1.87121485,-3.47080548,10.93759007
1.39806007,-2.85840174,11.55138810
0.92490530,-2.24599800,12.16694589
0.45175052,-1.63359425,12.78424254
-0.02140425,-1.02119051,13.40325740
-0.49455903,-0.40878677,14.02397008
-0.96771381,0.20361697,14.64636046
-1.44086858,0.81602071,15.27040869
-1.91402336,1.42842445,15.89609516
-2.38717813,2.04082819,16.52340053
-2.86033291,2.65323193,17.15230573
-3.33348768,3.26563567,17.78279193
-3.80664246,3.87803941,18.41484058
-4.27979723,4.49044315,19.04843337
-4.75295201,5.10284690,19.68355227
-5.22610678,5.71525064,20.32017947
-5.69926156,6.32765438,20.95829745
-6.17241634,6.94005812,21.59788891
8.17932601,-11.49143505,1.73459053
7.70617123,-10.87903131,2.32266822
7.23301646,-10.26662757,2.91282862
6.75986168,-9.65422383,3.50504710
6.28670691,-9.04182009,4.09929929
5.81355213,-8.42941635,4.69556100
5.34039735,-7.81701261,5.29380828
4.86724258,-7.20460886,5.89401744
4.39408780,-6.59220512,6.49616499
3.92093303,-5.97980138,7.10022772
3.44777825,-5.36739764,7.70618266
2.97462348,-4.75499390,8.31400708
2.50146870,-4.14259016,8.92367853
2.02831393,-3.53018642,9.53517481
1.55515915,-2.91778268,10.14847396
1.08200438,-2.30537894,10.76355433
0.60884960,-1.69297520,11.38039449
0.13569482,-1.08057146,11.99897332
-0.33745995,-0.46816772,12.61926992
-0.81061473,0.14423603,13.24126370
-1.28376950,0.75663977,13.86493432
-1.75692428,1.36904351,14.49026172
-2.23007905,1.98144725,15.11722610
-2.70323383,2.59385099,15.74580792
-3.17638860,3.20625473,16.37598793
-3.64954338,3.81865847,17.00774713
-4.12269815,4.43106221,17.64106680
-4.59585293,5.04346595,18.27592847
-5.06900771,5.65586969,18.91231394
-5.54216248,6.26827343,19.55020527
-6.01531726,6.88067717,20.18958478
-6.48847203,7.49308092,20.83043506
7.86327031,-10.93841225,0.92844509
7.39011553,-10.32600851,1.51778767
6.91696076,-9.71360477,2.10921713
6.44380598,-9.10120103,2.70270849
5.97065121,-8.48879729,3.29823698
5.49749643,-7.87639355,3.89577809
5.02434166,-7.26398981,4.49530752
4.55118688,-6.65158607,5.09680125
4.07803211,-6.03918233,5.70023548
3.60487733,-5.42677859,6.30558669
3.13172256,-4.81437484,6.91283159
2.65856778,-4.20197110,7.52194717
2.18541300,-3.58956736,8.13291070
1.71225823,-2.97716362,8.74569969
1.23910345,-2.36475988,9.36029194
0.76594868,-1.75235614,9.97666552
0.29279390,-1.13995240,10.59479877
-0.18036087,-0.52754866,11.21467031
-0.65351565,0.08485508,11.83625903
-1.12667042,0.69725882,12.45954411
-1.59982520,1.30966256,13.08450500
-2.07297997,1.92206631,13.71112143
-2.54613475,2.53447005,14.33937339
-3.01928953,3.14687379,14.96924117
-3.49244430,3.75927753,15.60070533
-3.96559908,4.37168127,16.23374670
-4.43875385,4.98408501,16.86834637
-4.91190863,5.59648875,17.50448573
-5.38506340,6.20889249,18.14214641
-5.85821818,6.82129623,18.78131034
-6.33137295,7.43369997,19.42195969
8.02036939,-10.99779320,-0.46542513
7.54721461,-10.38538945,0.12307890
7.07405984,-9.77298571,0.71369945
6.60090506,-9.16058197,1.30641092
6.12775029,-8.54817823,1.90118796
5.65459551,-7.93577449,2.49800546
5.18144074,-7.32337075,3.09683852
4.70828596,-6.71096701,3.69766254
4.23513119,-6.09856327,4.30045312
3.76197641,-5.48615953,4.90518616
3.28882163,-4.87375579,5.51183781
2.81566686,-4.26135205,6.12038449
2.34251208,-3.64894831,6.73080290
1.86935731,-3.03654456,7.34307000
1.39620253,-2.42414082,7.95716303
0.92304776,-1.81173708,8.57305954
0.44989298,-1.19933334,9.19073732
-0.02326179,-0.58692960,9.81017447
-0.49641657,0.02547414,10.43134937
-0.96957134,0.63787788,11.05424068
-1.44272612,1.25028162,11.67882735
-1.91588090,1.86268536,12.30508862
-2.38903567,2.47508910,12.93300401
-2.86219045,3.08749284,13.56255331
-3.33534522,3.69989659,14.19371663
-3.80850000,4.31230033,14.82647433
-4.28165477,4.92470407,15.46080707
-4.75480955,5.53710781,16.09669578
-5.22796432,6.14951155,16.73412168
-5.70111910,6.76191529,17.37306626
-6.17427387,7.37431903,18.01351128
-6.64742865,7.98672277,18.65543878
7.70431369,-10.44477040,-1.27128535
7.23115892,-9.83236666,-0.68149440
6.75800414,-9.21996292,-0.08958261
6.28484937,-8.60755917,0.50442403
5.81169459,-7.99515543,1.10049978
5.33853982,-7.38275169,1.69861917
4.86538504,-6.77034795,2.29875694
4.39223026,-6.15794421,2.90088813
3.91907549,-5.54554047,3.50498802
3.44592071,-4.93313673,4.11103216
2.97276594,-4.32073299,4.71899639
2.49961116,-3.70832925,5.32885682
2.02645639,-3.09592551,5.94058985
1.55330161,-2.48352177,6.55417215
1.08014684,-1.87111803,7.16958069
0.60699206,-1.25871428,7.78679272
0.13383729,-0.64631054,8.40578581
-0.33931749,-0.03390680,9.02653779
-0.81247227,0.57849694,9.64902679
-1.28562704,1.19090068,10.27323124
-1.75878182,1.80330442,10.89912988
-2.23193659,2.41570816,11.52670171
-2.70509137,3.02811190,12.15592606
-3.17824614,3.64051564,12.78678252
-3.65140092,4.25291938,13.41925101
-4.12455569,4.86532312,14.05331170
-4.59771047,5.47772686,14.68894507
-5.07086524,6.09013061,15.32613190
-5.54402002,6.70253435,15.96485323
-6.01717480,7.31493809,16.60509041
-6.49032957,7.92734183,17.24682505
7.86141277,-10.50415134,-2.66529212
7.38825800,-9.89174760,-2.07635226
6.91510322,-9.27934386,-1.48526076
6.44194844,-8.66694012,-0.89204425
5.96879367,-8.05453638,-0.29672908
5.49563889,-7.44213264,0.30065862
5.02248412,-6.82972890,0.90009298
4.54932934,-6.21732515,1.50154840
4.07617457,-5.60492141,2.10499954
3.60301979,-4.99251767,2.71042135
3.12986502,-4.38011393,3.31778904
2.65671024,-3.76771019,3.92707814
2.18355547,-3.15530645,4.53826444
1.71040069,-2.54290271,5.15132403
1.23724591,-1.93049897,5.76623329
0.76409114,-1.31809523,6.38296891
0.29093636,-0.70569149,7.00150788
-0.18221841,-0.09328775,7.62182749
-0.65537319,0.51911600,8.24390531
-1.12852796,1.13151974,8.86771925
-1.60168274,1.74392348,9.49324749
-2.07483751,2.35632722,10.12046855
-2.54799229,2.96873096,10.74936122
-3.02114706,3.58113470,11.37990460
-3.49430184,4.19353844,12.01207811
-3.96745662,4.80594218,12.64586144
-4.44061139,5.41834592,13.28123462
-4.91376617,6.03074966,13.91817794
-5.38692094,6.64315340,14.55667200
-5.86007572,7.25555714,15.19669769
-6.33323049,7.86796089,15.83823620
-6.80638527,8.48036463,16.48126901
8.01851185,-10.56353228,-4.05892776
7.54535707,-9.95112854,-3.47086138
7.07220230,-9.33872480,-2.88061161
6.59904752,-8.72632106,-2.28820573
6.12589275,-8.11391732,-1.69367076
5.65273797,-7.50151358,-1.09703348
5.17958320,-6.88910984,-0.49832041
4.70642842,-6.27670610,0.10244220
4.23327365,-5.66430236,0.70522838
3.76011887,-5.05189862,1.31001244
3.28696410,-4.43949487,1.91676896
2.81380932,-3.82709113,2.52547283
2.34065454,-3.21468739,3.13609924
1.86749977,-2.60228365,3.74862367
1.39434499,-1.98987991,4.36302190
0.92119022,-1.37747617,4.97927002
0.44803544,-0.76507243,5.59734443
-0.02511933,-0.15266869,6.21722184
-0.49827411,0.45973505,6.83887929
-0.97142888,1.07213879,7.46229409
-1.44458366,1.68454253,8.08744389
-1.91773843,2.29694627,8.71430666
-2.39089321,2.90935002,9.34286068
-2.86404799,3.52175376,9.97308451
-3.33720276,4.13415750,10.60495707
-3.81035754,4.74656124,11.23845756
-4.28351231,5.35896498,11.87356550
-4.75666709,5.97136872,12.51026071
-5.22982186,6.58377246,13.14852332
-5.70297664,7.19617620,13.78833376
-6.17613141,7.80857994,14.42967277
-6.64928619,8.42098368,15.07252138
-7.12244096,9.03338742,15.71686091
7.70245615,-10.01050949,-4.86500833
7.22930138,-9.39810574,-4.27562260
6.75614660,-8.78570200,-3.68404872
6.28299183,-8.17329826,-3.09031437
5.80983705,-7.56089452,-2.49444701
5.33668228,-6.94849078,-1.89647383
4.86352750,-6.33608704,-1.29642175
4.39037273,-5.72368330,-0.69431740
3.91721795,-5.11127956,-0.09018715
3.44406317,-4.49887582,0.51594296
2.97090840,-3.88647208,1.12404716
2.49775362,-3.27406834,1.73409999
2.02459885,-2.66166459,2.34607631
1.55144407,-2.04926085,2.95995128
1.07828930,-1.43685711,3.57570037
0.60513452,-0.82445337,4.19329937
0.13197975,-0.21204963,4.81272440
-0.34117503,0.40035411,5.43395189
-0.81432980,1.01275785,6.05695860
-1.28748458,1.62516159,6.68172160
-1.76063936,2.23756533,7.30821830
-2.23379413,2.84996907,7.93642642
-2.70694891,3.46237281,8.56632400
-3.18010368,4.07477655,9.19788942
-3.65325846,4.68718030,9.83110136
-4.12641323,5.29958404,10.46593883
-4.59956801,5.91198778,11.10238116
-5.07272278,6.52439152,11.74040800
-5.54587756,7.13679526,12.37999928
-6.01903233,7.74919900,13.02113529
-6.49218711,8.36160274,13.66379660
-6.96534189,8.97400648,14.30796408
7.85955523,-10.06989043,-6.25877898
7.38640046,-9.45748669,-5.67028054
6.91324568,-8.84508295,-5.07956089
6.44009091,-8.23267921,-4.48664843
5.96693613,-7.62027546,-3.89157129
5.49378135,-7.00787172,-3.29435738
5.02062658,-6.39546798,-2.69503429
4.54747180,-5.78306424,-2.09362935
4.07431703,-5.17066050,-1.49016960
3.60116225,-4.55825676,-0.88468176
3.12800748,-3.94585302,-0.27719228
2.65485270,-3.33344928,0.33227274
2.18169793,-2.72104554,0.94368748
1.70854315,-2.10864180,1.55702646
1.23538838,-1.49623806,2.17226452
0.76223360,-0.88383432,2.78937683
0.28907882,-0.27143057,3.40833887
-0.18407595,0.34097317,4.02912646
-0.65723073,0.95337691,4.65171577
-1.13038550,1.56578065,5.27608328
-1.60354028,2.17818439,5.90220581
-2.07669505,2.79058813,6.53006052
-2.54984983,3.40299187,7.15962488
-3.02300460,4.01539561,7.79087673
-3.49615938,4.62779935,8.42379420
-3.96931415,5.24020309,9.05835579
-4.44246893,5.85260683,9.69454030
-4.91562371,6.46501058,10.33232687
-5.38877848,7.07741432,10.97169495
-5.86193326,7.68981806,11.61262433
-6.33508803,8.30222180,12.25509512
-6.80824281,8.91462554,12.89908773
-7.28139758,9.52702928,13.54458289
8.01665431,-10.12927137,-7.65215845
7.54349954,-9.51686763,-7.06457153
7.07034476,-8.90446389,-6.47472929
6.59718998,-8.29206015,-5.88266086
6.12403521,-7.67965641,-5.28839511
5.65088043,-7.06725267,-4.69196064
5.17772566,-6.45484893,-4.09338577
4.70457088,-5.84244518,-3.49269854
4.23141611,-5.23004144,-2.88992669
3.75826133,-4.61763770,-2.28509765
3.28510656,-4.00523396,-1.67823854
2.81195178,-3.39283022,-1.06937618
2.33879701,-2.78042648,-0.45853703
1.86564223,-2.16802274,0.15425273
1.39248745,-1.55561900,0.76896728
0.91933268,-0.94321526,1.38558114
0.44617790,-0.33081152,2.00406916
-0.02697687,0.28159222,2.62440652
-0.50013165,0.89399596,3.24656875
-0.97328642,1.50639971,3.87053174
-1.44644120,2.11880345,4.49627168
-1.91959597,2.73120719,5.12376516
-2.39275075,3.34361093,5.75298907
-2.86590552,3.95601467,6.38392066
-3.33906030,4.56841841,7.01653753
-3.81221508,5.18082215,7.65081760
-4.28536985,5.79322589,8.28673916
-4.75852463,6.40562963,8.92428081
-5.23167940,7.01803337,9.56342149
-5.70483418,7.63043711,10.20414050
-6.17798895,8.24284085,10.84641743
-6.65114373,8.85524460,11.49023223
-7.12429850,9.46764834,12.13556516
-7.59745328,10.08005208,12.78239681
7.70059861,-9.57624857,-8.45848091
7.22744384,-8.96384483,-7.86954025
6.75428906,-8.35144109,-7.27833895
6.28113429,-7.73903735,-6.68490664
5.80797951,-7.12663361,-6.08927265
5.33482474,-6.51422987,-5.49146604
4.86166996,-5.90182613,-4.89151559
4.38851519,-5.28942239,-4.28944977
3.91536041,-4.67701865,-3.68529673
3.44220564,-4.06461490,-3.07908432
2.96905086,-3.45221116,-2.47084005
2.49589608,-2.83980742,-1.86059112
2.02274131,-2.22740368,-1.24836437
1.54958653,-1.61499994,-0.63418631
1.07643176,-1.00259620,-0.01808312
0.60327698,-0.39019246,0.59991939
0.13012221,0.22221128,1.21979575
-0.34303257,0.83461502,1.84152084
-0.81618734,1.44701876,2.46506990
-1.28934212,2.05942250,3.09041852
-1.76249689,2.67182624,3.71754264
-2.23565167,3.28422999,4.34641857
-2.70880645,3.89663373,4.97702297
-3.18196122,4.50903747,5.60933285
-3.65511600,5.12144121,6.24332557
-4.12827077,5.73384495,6.87897884
-4.60142555,6.34624869,7.51627074
-5.07458032,6.95865243,8.15517967
-5.54773510,7.57105617,8.79568440
-6.02088987,8.18345991,9.43776402
-6.49404465,8.79586365,10.08139798
-6.96719942,9.40826739,10.72656605
-7.44035420,10.02067113,11.37324834
7.85769769,-9.63562952,-9.85199326
7.38454292,-9.02322577,-9.26397935
6.91138814,-8.41082203,-8.67366927
6.43823337,-7.79841829,-8.08109339
5.96507859,-7.18601455,-7.48628182
5.49192382,-6.57361081,-6.88926438
5.01876904,-5.96120707,-6.29007061
4.54561426,-5.34880333,-5.68872971
4.07245949,-4.73639959,-5.08527062
3.59930471,-4.12399585,-4.47972191
3.12614994,-3.51159211,-3.87211185
2.65299516,-2.89918837,-3.26246834
2.17984039,-2.28678463,-2.65081896
1.70668561,-1.67438088,-2.03719095
1.23353084,-1.06197714,-1.42161116
0.76037606,-0.44957340,-0.80410611
0.28722129,0.16283034,-0.18470196
-0.18593349,0.77523408,0.43657550
-0.65908827,1.38763782,1.05970086
-1.13224304,2.00004156,1.68464904
-1.60539782,2.61244530,2.31139537
-2.07855259,3.22484904,2.93991550
-2.55170737,3.83725278,3.57018549
-3.02486214,4.44965652,4.20218174
-3.49801692,5.06206027,4.83588103
-3.97117169,5.67446401,5.47126050
-4.44432647,6.28686775,6.10829763
-4.91748124,6.89927149,6.74697029
-5.39063602,7.51167523,7.38725671
-5.86379080,8.12407897,8.02913543
-6.33694557,8.73648271,8.67258540
-6.81010035,9.34888645,9.31758588
-7.28325512,9.96129019,9.96411648
-7.75640990,10.57369393,10.61215717
7.54164200,-9.08260672,-10.65803142
7.06848722,-8.47020298,-10.06863769
6.59533245,-7.85779924,-9.47694224
6.12217767,-7.24539549,-8.88297597
5.64902289,-6.63299175,-8.28676950
5.17586812,-6.02058801,-7.68835314
4.70271334,-5.40818427,-7.08775690
4.22955857,-4.79578053,-6.48501047
3.75640379,-4.18337679,-5.88014320
3.28324902,-3.57097305,-5.27318413
2.81009424,-2.95856931,-4.66416192
2.33693947,-2.34616557,-4.05310489
1.86378469,-1.73376183,-3.44004102
1.39062992,-1.12135809,-2.82499791
0.91747514,-0.50895435,-2.20800279
0.44432036,0.10344940,-1.58908252
-0.02883441,0.71585314,-0.96826359
-0.50198919,1.32825688,-0.34557213
-0.97514396,1.94066062,0.27896615
-1.44829874,2.55306436,0.90532588
-1.92145351,3.16546810,1.53348208
-2.39460829,3.77787184,2.16341015
-2.86776306,4.39027558,2.79508588
-3.34091784,5.00267932,3.42848543
-3.81407261,5.61508306,4.06358533
-4.28722739,6.22748680,4.70036249
-4.76038217,6.83989054,5.33879419
-5.23353694,7.45229429,5.97885809
-5.70669172,8.06469803,6.62053220
-6.17984649,8.67710177,7.26379492
-6.65300127,9.28950551,7.90862497
-7.12615604,9.90190925,8.55500148
-7.59931082,10.51431299,9.20290390
7.22558630,-8.52958392,-11.46322926
6.75243152,-7.91718018,-10.87243929
6.27927675,-7.30477644,-10.27934221
5.80612197,-6.69237270,-9.68396947
5.33296720,-6.07996896,-9.08635218
4.85981242,-5.46756522,-8.48652117
4.38665765,-4.85516147,-7.88450693
3.91350287,-4.24275773,-7.28033962
3.44034810,-3.63035399,-6.67404905
2.96719332,-3.01795025,-6.06566469
2.49403855,-2.40554651,-5.45521564
2.02088377,-1.79314277,-4.84273064
1.54772899,-1.18073903,-4.22823804
1.07457422,-0.56833529,-3.61176583
0.60141944,0.04406845,-2.99334161
0.12826467,0.65647219,-2.37299260
-0.34489011,1.26887593,-1.75074563
-0.81804488,1.88127968,-1.12662713
-1.29119966,2.49368342,-0.50066316
-1.76435443,3.10608716,0.12712063
-2.23750921,3.71849090,0.75669898
-2.71066398,4.33089464,1.38804702
-3.18381876,4.94329838,2.02114026
-3.65697354,5.55570212,2.65595462
-4.13012831,6.16810586,3.29246638
-4.60328309,6.78050960,3.93065225
-5.07643786,7.39291334,4.57048927
-5.54959264,8.00531708,5.21195491
-6.02274741,8.61772082,5.85502698
-6.49590219,9.23012457,6.49968369
-6.96905696,9.84252831,7.14590361
-7.44221174,10.45493205,7.79366567
-7.91536651,11.06733579,8.44294918
6.90953060,-7.97656112,-12.26756989
6.43637583,-7.36415738,-11.67536695
5.96322105,-6.75175364,-11.08085170
5.49006628,-6.13934990,-10.48405610
5.01691150,-5.52694616,-9.88501180
4.54375673,-4.91454242,-9.28375015
4.07060195,-4.30213868,-8.68030212
3.59744717,-3.68973494,-8.07469835
3.12429240,-3.07733119,-7.46696912
2.65113762,-2.46492745,-6.85714435
2.17798285,-1.85252371,-6.24525356
1.70482807,-1.24011997,-5.63132591
1.23167330,-0.62771623,-5.01539017
0.75851852,-0.01531249,-4.39747469
0.28536375,0.59709125,-3.77760745
-0.18779103,1.20949499,-3.15581603
-0.66094580,1.82189873,-2.53212760
-1.13410058,2.43430247,-1.90656893
-1.60725536,3.04670621,-1.27916637
-2.08041013,3.65910995,-0.64994587
-2.55356491,4.27151370,-0.01893301
-3.02671968,4.88391744,0.61384710
-3.49987446,5.49632118,1.24836969
-3.97302923,6.10872492,1.88461043
-4.44618401,6.72112866,2.52254539
-4.91933878,7.33353240,3.16215101
-5.39249356,7.94593614,3.80340416
-5.86564833,8.55833988,4.44628208
-6.33880311,9.17074362,5.09076239
-6.81195788,9.78314736,5.73682312
-7.28511266,10.39555110,6.38444267
-7.75826744,11.00795485,7.03359981
6.59347491,-7.42353832,-13.07103582
6.12032013,-6.81113458,-12.47740289
5.64716536,-6.19873084,-11.88145260
5.17401058,-5.58632710,-11.28321748
4.70085580,-4.97392336,-10.68272971
4.22770103,-4.36151962,-10.08002114
3.75454625,-3.74911588,-9.47512327
3.28139148,-3.13671214,-8.86806723
2.80823670,-2.52430840,-8.25888376
2.33508193,-1.91190466,-7.64760322
1.86192715,-1.29950091,-7.03425559
1.38877238,-0.68709717,-6.41887044
0.91561760,-0.07469343,-5.80147695
0.44246283,0.53771031,-5.18210386
-0.03069195,1.15011405,-4.56077953
-0.50384673,1.76251779,-3.93753189
-0.97700150,2.37492153,-3.31238846
-1.45015628,2.98732527,-2.68537632
-1.92331105,3.59972901,-2.05652217
-2.39646583,4.21213275,-1.42585225
-2.86962060,4.82453649,-0.79339240
-3.34277538,5.43694023,-0.15916805
-3.81593015,6.04934398,0.47679581
-4.28908493,6.66174772,1.11447459
-4.76223970,7.27415146,1.75384410
-5.23539448,7.88655520,2.39488059
-5.70854926,8.49895894,3.03756069
-6.18170403,9.11136268,3.68186145
-6.65485881,9.72376642,4.32776031
-7.12801358,10.33617016,4.97523510
-7.60116836,10.94857390,5.62426406
-8.07432313,11.56097764,6.27482580
6.27741921,-6.87051553,-13.87360897
5.80426443,-6.25811178,-13.27852870
5.33110966,-5.64570804,-12.68112621
4.85795488,-5.03330430,-12.08143459
4.38480011,-4.42090056,-11.47948659
3.91164533,-3.80849682,-10.87531459
3.43849056,-3.19609308,-10.26895058
2.96533578,-2.58368934,-9.66042619
2.49218101,-1.97128560,-9.04977265
2.01902623,-1.35888186,-8.43702079
1.54587146,-0.74647812,-7.82220101
1.07271668,-0.13407438,-7.20534332
0.59956190,0.47832936,-6.58647730
0.12640713,1.09073311,-5.96563209
-0.34674765,1.70313685,-5.34283644
-0.81990242,2.31554059,-4.71811862
-1.29305720,2.92794433,-4.09150651
-1.76621197,3.54034807,-3.46302753
-2.23936675,4.15275181,-2.83270866
-2.71252152,4.76515555,-2.20057649
-3.18567630,5.37755929,-1.56665711
-3.65883107,5.98996303,-0.93097624
-4.13198585,6.60236677,-0.29355914
-4.60514063,7.21477051,0.34556937
-5.07829540,7.82717426,0.98638486
-5.55145018,8.43957800,1.62886336
-6.02460495,9.05198174,2.27298128
-6.49775973,9.66438548,2.91871547
-6.97091450,10.27678922,3.56604318
-7.44406928,10.88919296,4.21494208
-7.91722405,11.50159670,4.86539022
5.96136351,-6.31749273,-14.67527064
5.48820874,-5.70508899,-14.07872533
5.01505396,-5.09268525,-13.47985315
4.54189919,-4.48028150,-12.87868778
4.06874441,-3.86787776,-12.27526251
3.59558964,-3.25547402,-11.66961026
3.12243486,-2.64307028,-11.06176356
2.64928008,-2.03066654,-10.45175452
2.17612531,-1.41826280,-9.83961487
1.70297053,-0.80585906,-9.22537589
1.22981576,-0.19345532,-8.60906845
0.75666098,0.41894842,-7.99072298
0.28350621,1.03135216,-7.37036947
-0.18964857,1.64375590,-6.74803748
-0.66280334,2.25615964,-6.12375612
-1.13595812,2.86856339,-5.49755403
-1.60911289,3.48096713,-4.86945944
-2.08226767,4.09337087,-4.23950009
-2.55542245,4.70577461,-3.60770331
-3.02857722,5.31817835,-2.97409595
-3.50173200,5.93058209,-2.33870442
-3.97488677,6.54298583,-1.70155470
-4.44804155,7.15538957,-1.06267230
-4.92119632,7.76779331,-0.42208232
-5.39435110,8.38019705,0.22019062
-5.86750587,8.99260079,0.86412228
